# .PCD v0.7 - Point Cloud Data file format
VERSION 0.7
FIELDS x y z rgb
SIZE 4 4 4 4
TYPE F F F U
COUNT 1 1 1 1
WIDTH 244
HEIGHT 1
VIEWPOINT 0 0 0 1 0 0 0
POINTS 244
DATA ascii
-2.1007602 -0.032036152 0.60454714 7759193
-2.0981345 -0.032644063 0.60544431 8153709
-2.2003858 -0.063525893 0.68674111 8611414
-0.8065868 0.31605008 0.70546466 8486804
-3.3352582 0.35084543 0.72009403 9271679
-2.1734214 0.34514809 0.79669833 9989975
-2.1608222 0.34430379 0.79137015 11109489
-3.3689322 0.29577029 0.80123842 8879492
-3.4646442 0.50413197 0.81546742 8615807
-3.4258034 0.53580153 0.81492531 8483966
-3.4197636 0.40471953 0.85909909 8747649
-3.4139218 0.3795073 0.86603093 8878980
-3.4949172 0.6994561 0.91790587 8286323
-3.3264937 0.21636237 0.92162353 9339786
-3.3826189 0.3545391 0.92097628 8812927
-3.3278682 0.38525227 0.92964774 8812417
-3.3418756 0.22963724 0.93508059 9338762
-3.345295 0.23260924 0.93222606 9273737
-3.4868727 0.75784957 0.94799125 8351349
-3.4859247 0.76407629 0.9480629 8351350
-3.4454894 0.71942663 0.95274472 8809850
-3.3754108 0.54414058 0.96358442 8680320
-3.52143 0.66968018 0.96150202 8482427
-3.517808 0.6665321 0.96452564 8351355
-1.1876678 0.062175781 0.98478746 986124
-3.2898829 0.40590951 0.98492199 9205380
-3.435442 0.49393159 0.98325711 8550273
-0.56615692 -0.13682415 0.99019998 10784147
-3.364146 0.56481844 1.0292146 8550014
-3.4964917 0.88956267 1.0205063 8220276
-3.4866428 0.90631038 1.0261452 8219763
-3.216594 0.18786345 1.0328152 9732738
-3.3605838 0.56172216 1.0321884 8484733
-3.1822805 0.11441447 1.0659128 9666953
-3.2564731 0.41325536 1.0656813 8942977
-3.2509258 0.44969851 1.0661004 9009018
-3.2544298 0.45274389 1.0631753 8942709
-3.4442506 0.80800235 1.0678076 8089971
-3.5647559 0.90727562 1.0671623 8219513
-3.4722273 0.90819573 1.0695057 9666684
-3.5689845 0.91466266 1.0632534 8219510
-3.4665496 0.91784996 1.0727562 7757678
-3.3255281 0.57531273 1.0869994 8681088
-3.4536457 0.89204538 1.0850177 9272951
-3.2938118 0.43725979 1.0947096 9008259
-3.4387803 0.87912506 1.0974272 9140857
-3.5626957 0.97614509 1.0957196 197644
-3.5583239 0.98357928 1.0982226 590865
-3.2758753 0.37621999 1.1143222 9075330
-3.383363 0.76954335 1.1171603 8548215
-3.382391 0.77592933 1.1172336 8679032
-3.3742552 0.74716538 1.1262395 8614522
-3.3779392 0.7503674 1.1231642 8548736
-3.0534637 0.078965999 1.1393512 9930120
-3.3372777 0.59702671 1.1376067 14071720
-1.9413829 -0.23711024 1.14307 9858885
-3.0508714 0.08337377 1.1408354 10060680
-3.3317983 0.59226435 1.1421808 14204843
-3.5425241 0.93951535 1.1498094 526343
-3.3540423 0.59221047 1.1571362 14337709
-3.5381124 0.94701731 1.1523352 656393
-3.4849532 0.97597849 1.1537391 3082267
-3.2662344 0.55451268 1.1636547 15125429
-3.3503585 0.58900857 1.1602116 14534321
-3.3874192 0.60835767 1.163384 14608611
-3.5555956 0.92683053 1.1764029 590342
-3.5489237 0.99474555 1.1744485 3016477
-3.2570164 0.51292741 1.2060724 8413574
-3.1866972 0.32275277 1.2779474 9075075
-2.9450281 -0.008876849 1.28455 9668239
-3.2804365 0.48792154 1.2882929 15852730
-3.2865021 0.49687248 1.2828538 15589078
-3.1872921 0.45450896 1.2956014 15656434
-3.1707141 0.44010019 1.3094405 15655921
-2.8354809 -0.11715587 1.3220029 8217181
-3.1997447 0.44523898 1.3200545 15656178
-3.1969059 0.45006606 1.3216798 15326959
-2.8217192 -0.10247444 1.3307719 7168606
-2.8166289 -0.10689861 1.3350213 6840400
-2.8716137 -0.052382071 1.3437639 9273224
-2.9923663 0.17175983 1.3467132 9403785
-2.745039 -0.0026045986 1.3777882 6577231
-2.9523385 0.12997699 1.3808422 9469823
-3.0442891 0.32086411 1.3843888 10513270
-2.9625921 0.20528939 1.4258426 9337990
-3.0819058 0.32093528 1.4206599 12950430
-2.8971109 -0.030819938 1.4422324 7561796
-2.9266584 -0.050793279 1.4530158 7758407
-2.968575 0.033000525 1.4526038 7692385
-0.90218061 -0.72661549 1.4686 2562354
-0.89933997 -0.72661549 1.4686 2626835
-3.0060711 -0.081804991 1.5088657 7954774
-3.0014179 -0.082882315 1.5104556 7294774
-3.0277741 -0.10027888 1.5244124 6307628
-3.0260634 -0.092848912 1.5244401 7033160
-2.8440232 0.095125049 1.5255497 7232337
-2.8706782 0.18430829 1.5278556 15266536
-2.8779838 0.19065809 1.5217568 15201001
-2.9871562 -0.041857027 1.5334642 7030577
-2.8385901 0.090402961 1.5300851 6177845
-3.0300674 0.24211583 1.5339777 15066843
-3.064589 0.31680655 1.5462095 7298391
-3.059792 0.31569597 1.5478485 7296852
-3.0265067 -0.052859571 1.5638192 6772273
-2.9084313 0.15723245 1.5995936 15662828
-2.9159286 0.16374885 1.5933348 15596782
-2.9084749 -0.14630468 1.6299313 3810340
-2.9494328 -0.058093078 1.6247801 3943473
-2.9036779 -0.14741527 1.6315703 4073000
-2.9272146 -0.010593949 1.6365087 4404784
-2.9401822 0.21852849 1.6381363 10384757
-3.0141954 0.24639487 1.6354822 6769748
-3.0665731 0.19821832 1.6440101 7363922
-2.9070413 -0.14419721 1.6525913 4987943
-2.8616223 -0.023252239 1.652939 3418155
-3.2592685 -0.24399997 1.6644586 6310442
-3.2561896 -0.23876473 1.6662213 6310439
-2.9537325 -0.15238671 1.6601231 3154204
-2.9318726 -0.14660558 1.6668206 4600395
-2.9817395 -0.016471522 1.6657792 4470316
-2.9778891 -0.019818181 1.6689936 4273202
-2.9774063 -0.15561756 1.6760522 2760225
-3.3249819 -0.2672534 1.6896398 5716779
-2.943959 -0.050448254 1.7015786 2956060
-2.9372034 -0.043751746 1.703299 2824731
-3.3326733 -0.23481444 1.7356309 5322260
-3.3314087 -0.22932208 1.7356514 5452821
-3.1432974 -0.12536554 1.738627 4865580
-3.3119392 -0.29548585 1.7498406 6967859
-3.3090601 -0.18399401 1.7406088 6178594
-3.3042953 -0.29670113 1.7556677 6572336
-3.385932 -0.11395837 1.7579768 6770503
-3.2642374 -0.043818343 1.7597427 5454882
-2.9967172 0.025385438 1.751116 3285285
-3.3230083 -0.15161438 1.7672062 6112297
-3.4162428 -0.10528754 1.7772895 7429196
-3.4129801 -0.09973947 1.7791575 7166286
-3.2354288 -0.10142743 1.7871166 5717814
-3.2395771 -0.097821839 1.7836535 5783091
-3.0525019 -0.0054508667 1.7851266 3287072
-3.3170233 -0.29470596 1.7968366 5125154
-3.3244557 -0.26651204 1.7924135 5322007
-2.9633822 -0.11202328 1.7961857 3613217
-3.0209343 -0.0098906327 1.7957083 3284775
-3.01968 -0.0044436413 1.7957286 3285031
-3.0122876 -0.16106315 1.8092772 3614507
-3.2005723 -0.042156376 1.8070728 4863004
-3.2810662 -0.32781717 1.8164833 5328415
-3.2778671 -0.32237726 1.8183149 5261604
-3.3610129 -0.044300228 1.8122708 5981511
0.41295481 0.22152065 1.8133999 262657
-2.964973 -0.10890657 1.8209525 4928794
-2.9733486 0.12455457 1.8269112 8669487
-3.4227753 -0.21970218 1.8388959 5386014
-3.3889868 -0.041414559 1.8351697 6179908
-3.3856909 -0.035810035 1.8370568 6048065
-3.0504875 0.051199716 1.832551 3416610
-3.0696614 0.053949147 1.852469 3088933
-3.3224607 -0.23085216 1.8723115 5190153
-3.3278868 -0.22959587 1.8704575 5059086
-3.3025172 -0.16905889 1.8744 5190942
-2.9306796 0.043878496 1.8720334 1969943
-3.3220487 0.061321452 1.8746251 5915701
-3.0896246 -0.4262957 1.8887495 8408876
-3.4531744 -0.19803283 1.8845924 5582090
-3.312161 0.078135021 1.8802861 5652281
-3.3029904 -0.0060585937 1.8957216 5124890
0.54331046 0.2520065 1.8928 459523
-2.9659903 -0.49099386 1.9084797 6704693
-2.9610078 -0.50323546 1.9134464 7097909
-3.0526471 -0.45843497 1.9196182 8540748
-3.440196 -0.13785732 1.9142524 6703660
-3.3280113 -0.033438571 1.9135832 4202008
-3.3642759 -0.30464613 1.9210885 5715745
-2.8929064 -0.61259294 1.9376129 6966576
-3.3462002 -0.035594359 1.9375429 4006161
-3.2362916 0.063008189 1.938435 3014948
-2.8869166 -0.61779904 1.9426132 7359800
-3.3657758 -0.24810515 1.9462987 5322009
-3.2513485 -0.28162962 1.9561745 4205333
-3.3546283 -0.25068596 1.9501075 5388571
-3.3338406 -0.23689498 1.9558864 5454622
-3.2693186 0.055736996 1.9586003 4138823
-1.265563 -0.87306809 1.9650691 7634589
-3.4968059 -0.11850806 1.9844738 7494231
-3.3519344 0.013208197 1.9914377 3613969
-3.2945583 -0.27591503 2.0009482 2759966
-3.3158193 0.014316496 2.0031035 4598035
-2.9343538 -0.5370574 2.0159001 9923657
-3.3714731 -0.38314512 2.0132873 4862227
-3.3700929 -0.37715149 2.0133095 4599060
-3.226712 -0.19570391 2.0470257 4993306
-2.9403141 -0.56963205 2.0550866 9925974
-1.4849709 -1.0735468 2.062185 6839421
-3.2878609 -0.38987088 2.071732 5651490
-3.3510077 -0.27254251 2.0746772 2893594
-3.3488989 -0.26338404 2.0747113 3218965
-3.373641 0.01283274 2.0788398 4991255
-3.0956535 -0.026619188 2.1083894 2561818
-2.3798215 -0.50580043 2.1166344 2888474
-2.2368028 -0.49431118 2.110472 656651
-2.3759637 -0.48904479 2.1166966 1642770
-3.3167865 -0.23401518 2.1148939 4796714
-2.1646392 -0.51391077 2.135334 197122
-3.3553267 -0.24337864 2.1356995 4207660
-3.353894 -0.23715733 2.1357226 3352620
-3.0559494 -0.20783123 2.1341958 5451544
-3.1144123 -0.025052756 2.134007 2561305
-3.1130066 -0.018947085 2.1340299 2625301
-3.3854747 0.11528315 2.1343112 2493967
-2.1522017 -0.53125298 2.1406126 394248
-2.2926471 -0.51421678 2.1455822 393986
-2.2873595 -0.515441 2.1473889 393986
-3.2161825 -0.25081536 2.1488056 5583898
-3.1188567 -0.24268389 2.1480479 5911320
-3.2150807 -0.19264917 2.145025 5453598
-3.20105 -0.10501989 2.1433523 6043160
-3.1952157 -0.10637067 2.1453457 6174489
-3.181577 -0.073826328 2.1474652 4594456
-2.113416 -0.50552195 2.1513948 393988
-2.2443473 -0.4253889 2.1549685 1049867
-2.2424183 -0.41701102 2.1549997 2097411
-3.1130764 -0.24402215 2.1500227 5649173
-3.2778065 -0.1761378 2.1561241 5584673
-3.1446757 -0.15377338 2.1651542 5846545
-3.1381319 -0.15204275 2.1671593 5911565
-2.2639084 -0.43386593 2.17577 1312009
-3.3094339 -0.18023439 2.1800678 5715741
-3.3079877 -0.17395233 2.1800911 5977633
-1.3663543 -1.0470695 2.1920447 3025965
-2.2800422 -0.44957224 2.1992545 984330
-3.2594471 -0.099169515 2.1905551 6372119
-1.4720931 -1.1818198 2.2187922 4139289
-3.2728536 -0.079863571 2.2187588 4859424
-1.4817934 -1.1978681 2.2372279 2754319
-1.457004 -1.1887176 2.2307541 2623243
-3.3054485 -0.10281849 2.2437298 7424278
-3.3009427 -0.097116582 2.2447894 6704920
-1.4946287 -1.2110944 2.2527866 2032394
-1.4978431 -1.2083004 2.2501032 2687756
-1.4625583 -1.2020594 2.252007 2164485
-1.459367 -1.2048331 2.2546709 1772037
-2.4152277 -0.50537974 2.2737229 393986
-3.3598065 -0.1052449 2.2972617 5981202
